ply
format ascii 1.0
element vertex 310
property double x
property double y
property double z
property double nx
property double ny
property double nz
end_header
-1.066460447173690 -0.031543386500769 -1.920000011170352 0.400510537912379 0.693163911467073 0.355810885797298
-1.003667405241875 -0.037052625144821 -1.921472904911961 0.012161722981743 0.757438801318766 0.570379886282496
-0.901246420378118 -0.038071262569053 -1.917512909730731 0.019072959406225 0.609974060751989 0.664599248963304
-0.804721323543150 -0.035600898568086 -1.916976599788985 -0.042960748554243 0.719898544127327 0.616922478412705
-0.702338495367519 -0.029745977136576 -1.914836459627775 -0.044515513637346 0.781420994863332 0.561693566703351
-0.602846963495432 -0.030806567660252 -1.908028131507965 0.036000298314700 0.716646640954247 0.617449985929282
-0.500498424031973 -0.029647033025183 -1.911663772237353 0.020493014851853 0.818944700159881 0.546178704005662
-0.402539202281049 -0.031876018507721 -1.908535455155560 -0.012717069271956 0.610940845756549 0.676364571090758
-0.345592952622544 -0.030984137558511 -1.901718784123659 -0.436716418655124 0.616708892863244 0.598007066175342
-1.095067831826588 0.020608944726535 -1.959648351529579 0.488621713104061 0.477818183928401 0.147128157767948
-1.002662081138166 0.001640940597425 -1.975308641975309 0.032009932696757 0.665891683579963 0.638299716414248
-0.902888229710717 0.001441142820670 -1.975495647347492 0.017404301342322 0.660912958888904 0.651469835120699
-0.798811323071491 0.004308158937446 -1.971047242795388 -0.080708007616042 0.712669337710996 0.622044406068607
-0.703105686491394 0.005500477774534 -1.966066198481915 0.026277025532828 0.639508600018996 0.633298517415748
-0.601304379101850 0.007324378435314 -1.964405742697061 -0.022368969997174 0.652396396992686 0.642652336400919
-0.501950789454594 0.008057023076471 -1.966095094666159 0.011994651671066 0.720274432305178 0.603524265570875
-0.402415980245549 0.008172441355154 -1.965057400778341 -0.036889285138007 0.697079516339518 0.625941623463732
-0.339343110617727 0.014921835943398 -1.954795186778149 -0.246052669103156 0.447932756449803 0.746910091983267
0.732498027524568 0.069250399011080 -1.902131174431473 -0.025156027148859 0.431553697480713 0.672477975243428
0.750031097419280 0.071626668550018 -1.897684260418541 -0.851540430596000 0.204269468686298 0.352953941414231
-1.133956510839008 0.096860127252246 -1.973066671689351 0.894151407480240 0.327105039358139 -0.286161729196707
0.736952163026723 0.116031947278995 -1.943837395528468 -0.195654944463716 0.488933817279048 0.697319822098182
0.796161391326402 0.128519083712419 -1.942928576603868 -0.143442788876980 0.674510900771483 0.608775247644661
0.898360076924286 0.143042847972716 -1.943748486211285 -0.106811120965027 0.767850394876443 0.561789275182914
0.996457796800563 0.149156281611252 -1.939308494761370 -0.081551526889368 0.665708960336681 0.630736662610964
1.067990603545625 0.158826780435450 -1.941642861990702 -0.086124381272904 0.527090012849796 0.711389171314381
0.937659061976841 0.184115240914481 -1.993000030517578 -0.160347256809473 0.871508886416753 0.459101676940918
1.002352167765300 0.189924307093183 -1.987328358550570 -0.085276262740841 0.832020816518300 0.505660891088087
1.085312154346488 0.229555376609166 -1.976091187140521 -0.395559230874128 0.097797222542645 0.702883222719709
1.097447070199961 0.326764166350883 -1.980620323017957 -0.726594614751517 0.162839794530219 0.389845156452599
-0.913704775174459 0.482180959383647 -1.970000028610229 0.195325662692388 0.819698015848796 0.491557230552038
1.110534232729956 0.434075281014120 -1.990473697060033 -0.159580150011339 -0.018288480072576 0.671216482237766
-0.969471072872368 0.544883211438173 -1.967098037401835 -0.134421190575642 0.461216385165850 0.671216136976784
-0.921447549898143 0.533627042070379 -1.974008878307230 0.309629676074476 -0.027380343476316 0.614409957555007
1.107478258450826 0.551855335515643 -1.989033341407776 -0.192792359242837 -0.166430577759941 0.576046824113776
1.092096697145257 0.638728871958494 -1.979206282996276 -0.616879541284902 -0.125622755474538 0.362014976024968
1.073817983206925 0.739440845276723 -1.959331592442784 -0.792682827494105 -0.230848547363017 0.214960780458868
1.042809535555206 0.852579050221285 -1.960046148300171 -0.749720581974357 -0.208917041393952 0.248787738114763
1.055873720358079 0.819150866237950 -1.938917430533546 -0.754699009258015 -0.176573474991434 0.292607253787579
1.033959422702302 0.893941961770755 -1.978462972022869 -0.873752683401108 -0.459026831581637 -0.023064657622146
-0.972798268107510 -0.121261112879193 -1.797611137231191 0.080315862955912 0.856265738606453 0.462517581052250
-0.901311632590824 -0.120982630395132 -1.796666693687439 0.000965836298031 0.801494956811269 0.558055145343145
-0.812984198247072 -0.121438801301047 -1.799452077852536 -0.006249772541046 0.712616059316756 0.596932034786433
-0.654382867926643 -0.117891430514199 -1.794000029563904 0.295684099197388 0.934719800949097 0.197154358029366
-0.636365205292062 -0.118512729225737 -1.794000029563904 -0.054646068337289 0.875986716964028 0.449057313528928
-1.060721283897521 -0.039530857638707 -1.874000024795532 0.848376330733299 0.369550185402234 -0.179779338091612
-0.999748982468558 -0.080173503828011 -1.844278023203379 0.205504882655998 0.682193875359178 0.413380033315809
-0.902576678420261 -0.088626576496212 -1.840853614413861 0.001714931371065 0.708603882812655 0.597599771280879
-0.801235750355381 -0.086706295215507 -1.840888033962618 -0.012201887088200 0.725662938574451 0.598814600596787
-0.701355045773379 -0.079394460098440 -1.838845758573383 -0.018082129370114 0.698298072475438 0.614162742589594
-0.602996377534289 -0.080252182609626 -1.837164112237784 0.012701645581590 0.684507769040572 0.624010047342023
-0.501555270171410 -0.077695931113542 -1.838506250882956 0.013956655050215 0.728657364035141 0.590150643266246
-0.402935104488372 -0.080946093545058 -1.834258600773044 -0.022542298017373 0.731750950540599 0.597578616513050
-0.329179500663238 -0.072952892533359 -1.834661483764648 -0.069804820713722 0.789305926032422 0.535863560461349
0.705151848355118 -0.018794286024003 -1.794000029563904 -0.069891093298793 0.765517132622855 0.625978452818734
-1.069370103188346 0.008091703117423 -1.860966126797563 0.910212887545763 0.309818107697923 -0.240425465218091
-1.047754124881459 -0.012624897664907 -1.820142814091274 0.893334712300982 0.365241489240101 -0.260588066918509
-0.314811913002105 -0.012762381292525 -1.849250048398972 -0.215382721973583 0.906690552830696 0.304171407595277
0.720213572742503 0.017324412646311 -1.834017758538737 -0.075409465582735 0.646748631572648 0.621654555173976
0.793698740665943 0.039837364442745 -1.834437831404246 -0.242327800788835 0.518868115805430 0.658845922592933
0.896175155974570 0.056114323620285 -1.823435423274835 -0.088623955479851 0.680930009329071 0.639709304645658
0.981556864997303 0.062992915115196 -1.819985604543480 -0.085520694515770 0.724700691781456 0.606029931053841
0.813194775267476 0.091418051288241 -1.881235312013065 -0.113233506298788 0.507890175545917 0.782050244247212
0.900087839601372 0.097006915310938 -1.876672338631193 -0.037645928991175 0.515430521241016 0.784431043149388
1.000904006030981 0.100858246293982 -1.869776888327165 -0.075936318443961 0.722852281856635 0.625895412992840
1.052186149024459 0.113124551482932 -1.878555576006572 -0.086445858081182 0.763810972372691 0.610025078058243
1.041406890841388 0.848624560467150 -1.876333355903625 -0.863600436184141 -0.321906579865350 -0.369979689518611
1.051252009051187 0.836769340537843 -1.883000016212463 -0.891675090789795 -0.305510920286179 -0.290483856201172
-0.973185213373585 -0.141531071821739 -1.754557697245708 0.384974240273900 0.574529417154666 0.321682945005495
-0.901348843899709 -0.158575762023435 -1.739502187018847 0.056750937208430 0.688624212301479 0.602349322335455
-0.801957262389736 -0.158547086883491 -1.739187212839518 -0.013587492013087 0.768926359361528 0.569715302012282
-0.703208445839481 -0.153892459430764 -1.735707654979060 -0.018140730420992 0.617751234424774 0.685770150782958
-0.601525029544516 -0.149337982279564 -1.735619998528407 -0.004120354173199 0.699133352568516 0.607327058957173
-0.500852372891286 -0.147589943057032 -1.734229332199335 0.017501957450398 0.750511562024561 0.594272434293015
-0.402568777273031 -0.147005106670966 -1.734542858222174 -0.019515129505592 0.771030350076774 0.578304037924797
-0.312497971138260 -0.145990707554276 -1.728904049279593 -0.077003840060178 0.689761529047130 0.607666827712470
-0.997952568461615 -0.081684689134911 -1.746503183796148 0.897484919827455 0.336516650690205 -0.179621137405752
-0.692967906624282 -0.112215753208212 -1.784485684122358 0.021543648238834 0.838255906105042 0.487449837156704
-0.580267611723097 -0.112819182245639 -1.783285691624596 -0.064334618459855 0.874728024005890 0.426202328432174
-0.505681207822733 -0.110787941254946 -1.781338972560430 0.062239658349920 0.761365174844672 0.561311028266357
-0.392513476627923 -0.112747766308132 -1.783593725413084 -0.078119912534021 0.841551462188363 0.494295015931129
-0.308440474849894 -0.108664360424331 -1.769263149876344 -0.307539472586589 0.530759183015968 0.606538843559591
0.644709229320288 -0.090206012349753 -1.706812508404255 -0.471804447472095 0.789006616920233 0.266551084350795
0.700334921263686 -0.054966622196024 -1.734930974139830 -0.091424389198054 0.689403876532572 0.589683733581540
0.796969891413275 -0.042828562715656 -1.731954703080481 -0.188476720499054 0.652735512565308 0.604129645946449
0.882170436519772 -0.032195806353020 -1.708447289900346 -0.259833465437405 0.593194494702303 0.606054363467477
0.950814046354005 -0.020558788280982 -1.709272763945840 -0.207272862846201 0.867501258850098 0.441634649580175
0.677050789197286 -0.015245714187622 -1.778666655222575 0.381230731805166 0.700647910435995 0.569388190905253
0.819113361487657 -0.001758168826372 -1.767377268184315 -0.407013477457010 0.572597047770713 0.521971321004358
0.899511250556622 0.005799817676871 -1.750995258631154 -0.092583676678814 0.758011029826270 0.579787348390471
0.966964457185788 0.017382523335586 -1.756396545075822 -0.026377679599899 0.518275735107647 0.740020556097058
-0.879277305191886 -0.236857837359037 -1.619255650390699 0.207131394252187 0.663820965559158 0.504100150702985
-0.801871217653812 -0.238114938855225 -1.619360735260438 0.034270067235279 0.738404248056011 0.606109966323754
-0.702342032002686 -0.238404229560151 -1.618663486872336 -0.003628709586780 0.702517162980122 0.627174769375941
-0.604085322263043 -0.236533017125424 -1.615311360882666 -0.025054848338175 0.697496159719731 0.644127702879573
-0.502878246523313 -0.233455461365432 -1.611418683173131 -0.011640108990605 0.673306883825093 0.662328154246897
-0.402445483699294 -0.230353762656271 -1.610565966761052 -0.002215037070218 0.759844035061483 0.600141450687108
-0.303663042545208 -0.231628572516529 -1.611381970762916 0.002886115430687 0.703189444929869 0.619466385919682
-0.232992679610486 -0.228917297602272 -1.607697822207170 -0.135941895272703 0.729310385400443 0.601096839570313
-0.961260774293428 -0.129458046668359 -1.679048753366238 0.911482832780698 0.313834594733014 -0.123279371230704
-0.907732305272599 -0.189288199029114 -1.653837945450235 0.442467098258695 0.608542409212397 0.193622781207927
-0.802964827943324 -0.203629149371029 -1.670725783994121 0.028479419303720 0.823413665833012 0.528726427305129
-0.700644748696409 -0.203388245833996 -1.666891423495192 -0.016632381901625 0.793356387581872 0.539349571164501
-0.602528855579524 -0.198031683724551 -1.665859982669353 -0.043737634480931 0.691688544303179 0.622473771721125
-0.503008645630756 -0.196515821310736 -1.661284712453683 0.007912322301679 0.768905568609221 0.571691960924201
-0.401959507042783 -0.196205765148450 -1.660683360078069 -0.011520643676907 0.774821769590394 0.564273536816273
-0.301597504867845 -0.194221883649665 -1.661300397458881 -0.012979156137784 0.765855803472515 0.589664974882279
-0.237904770337226 -0.200936257385072 -1.642683664146735 -0.268615026882260 0.475346214841215 0.719179659473653
0.615537964499340 -0.144455645672837 -1.618215092739393 -0.081199668200836 0.666832728048977 0.624294037280907
0.694296108595639 -0.136051856111804 -1.615985950391613 -0.120208668290610 0.698208089671536 0.620138957349953
0.794491012457514 -0.131440819602266 -1.607737890333316 -0.074247173676457 0.658167540154991 0.668436673078828
0.872805841573348 -0.125906276651343 -1.609999980581434 -0.045838317170580 0.725346220877806 0.596000866278222
-0.968180699731623 -0.106359165097986 -1.679624974727631 0.929330334067345 0.265738558024168 -0.208985840901732
0.632185918707346 -0.106788887659428 -1.664308623031334 -0.112160396318089 0.725786019852500 0.620932602588041
0.704409761452034 -0.099735701368123 -1.665076273013850 -0.161173176418956 0.749274147243039 0.561607309071504
0.800771561170216 -0.091839109612388 -1.659424929823327 -0.054460392749149 0.751734406249797 0.599420983830855
0.888813757772587 -0.073777939933194 -1.658808015819107 -0.307396088006672 0.518091931514001 0.604539297354807
-0.803837251971368 -0.320925774330995 -1.500957168851580 0.087885802914388 0.795232844565596 0.501759464455037
-0.703588953155137 -0.320569922554350 -1.500887527316809 0.042458166189510 0.776380294561386 0.536484218854457
-0.602235573914533 -0.319741280806613 -1.498598399709483 -0.003894123590368 0.775407444258205 0.576387426403702
-0.519266166252626 -0.318623302471564 -1.496456571247267 -0.040859492424795 0.794600381799366 0.589453172424565
-0.869713440967548 -0.253940106002514 -1.552395748584829 0.651643307197918 0.490732718750517 -0.015144636341311
-0.802975590620091 -0.287355755269542 -1.543774341526447 0.111349551656370 0.680210303856307 0.535301280539709
-0.703004808005427 -0.287899248639106 -1.547900372472343 0.017050678798181 0.737388386222709 0.597634455796244
-0.601805329345760 -0.286897433835582 -1.544762853289319 -0.008472772414211 0.756201076382231 0.576246916742943
-0.502251702210459 -0.284108896432016 -1.540701760796078 -0.047337187907703 0.766953754647259 0.576377429852360
-0.402386276503442 -0.279700076504945 -1.539170282174928 -0.002013622713834 0.781155544745479 0.565848271421112
-0.303487682074157 -0.279806214032239 -1.538975249578930 -0.007376610069360 0.795550033738847 0.551356711271505
-0.205577959415753 -0.274224202084366 -1.534694151354235 -0.100882841504891 0.732014177894924 0.590889055259624
-0.143145056776948 -0.287582245547256 -1.505046173242422 -0.165289156138897 0.721180416070498 0.632723747308438
0.521136532184556 -0.231008801317400 -1.509947381521526 -0.049428785526702 0.703263875097036 0.583493342988514
0.590220351285165 -0.225463149750050 -1.507758124640702 -0.106033103815608 0.767474299357256 0.571025702927517
0.669483056553515 -0.219026704162746 -1.501018201221119 -0.187383916499940 0.843349000540647 0.477678263187408
-0.894618757515358 -0.196656746248299 -1.561138890407703 0.906747056378259 0.365790704334224 -0.156522694899683
0.536980301043397 -0.205072262531795 -1.544380298802550 -0.299406491154411 0.720002137439352 0.461632940341050
0.599328698829272 -0.191741560884835 -1.551142236704001 -0.118915339851114 0.711393689026625 0.609127844970597
0.697430050391346 -0.185358786642716 -1.542612648558343 -0.106257982267863 0.777149423871232 0.567980739303019
0.797651067327896 -0.179962693458019 -1.540182624581886 -0.073383621251554 0.768091599236686 0.579946527026012
0.861855457582329 -0.157721243745621 -1.563700603867719 -0.142147060473935 0.646943332370884 0.635114388819226
-0.781465035264201 -0.351709446633142 -1.446845483328093 0.200369773508596 0.694161579648234 0.437570290262241
-0.701926419983106 -0.360375970971499 -1.441090026911158 0.039825320523945 0.763723662402556 0.573137104088276
-0.602097830654410 -0.357918010844190 -1.442418549194272 -0.003609589810513 0.737799477868510 0.594069632335115
-0.502105546601390 -0.353493351889035 -1.440953231182228 -0.047962769021088 0.759476244760056 0.586298783493488
-0.402814365223090 -0.348391627682531 -1.439743139344681 -0.026544642261109 0.768945649299239 0.578804580377624
-0.303137706801449 -0.343935425193233 -1.437582764522803 -0.028209477942794 0.796765049819148 0.547339856653793
-0.202594457495601 -0.342837818071656 -1.433398949723495 -0.019669271210227 0.793774907734049 0.547927828431129
-0.105676048403019 -0.340857598373668 -1.426895507485725 -0.068470814840111 0.747967276210701 0.591937481125823
-0.033494095017418 -0.345437509631354 -1.408013327121735 -0.188352771882589 0.550090958202879 0.707193341453870
0.346171429043724 -0.323537143298558 -1.398000001907349 0.164426181465387 0.674937069416046 0.715866019328435
0.386765098089545 -0.319913838165990 -1.401089131241978 -0.051298538123783 0.852325478992840 0.494867046870808
-0.856373196402374 -0.234247482804214 -1.485571427004678 0.812081068754196 0.573714871491705 0.009756187509213
-0.825267131883685 -0.280390728502167 -1.444757452416927 0.875885974853597 0.376411955005073 -0.175384245884228
-0.460880940868741 -0.313399039790744 -1.488999962806702 -0.067149702193482 0.674023279121944 0.726800467286791
-0.391629721591262 -0.313120845442726 -1.487928548029491 0.009222792034832 0.825127110949584 0.543714177927801
-0.283981311687536 -0.311460608548048 -1.487499982118607 -0.036592935541800 0.760149697462718 0.607515203456084
-0.198971805452794 -0.309554275954349 -1.483376235655039 -0.068813882831549 0.775835105983338 0.587731586824549
-0.123346941930106 -0.306703705924177 -1.475257676071916 -0.168781482420313 0.670598396471490 0.623732843373451
0.419725954132819 -0.299745793910579 -1.420432654356205 -0.002867607856810 0.578317101777966 0.620256264104286
0.498285240276785 -0.278730675442109 -1.440420070323802 -0.103442605782041 0.771710889591605 0.560658392756069
0.597595766387161 -0.267073390446143 -1.442052629510322 -0.111054385676988 0.766457270255523 0.574809671618282
0.697935296606186 -0.255731644152420 -1.445648313450245 -0.086900457926147 0.730439277287747 0.602846218568434
0.779043066436860 -0.246677838256689 -1.449817127344051 -0.094062298285307 0.750237533457696 0.585874287911700
0.731608206833596 -0.212327527163865 -1.488999962806702 -0.052110430572859 0.486028862270442 0.813434492457997
0.797677543063612 -0.212568427286912 -1.488707283648049 -0.071685992612890 0.754884671147277 0.595889718067355
-0.700238868435116 -0.437091102491921 -1.328768350168344 0.082945544567988 0.710039011205681 0.545558052673444
-0.601888993393242 -0.436328731474912 -1.325874051676914 -0.000476534446936 0.771634032192914 0.557110976502769
-0.503290355102249 -0.433999927439338 -1.325054886282944 -0.005011256974813 0.783965625241399 0.538614265793344
-0.404682453571169 -0.432519063710026 -1.318125188268690 -0.063783177527557 0.778019017149199 0.568428815292525
-0.303934994364472 -0.427834512324978 -1.313695431849278 -0.040856833118383 0.776276637436053 0.563213695052567
-0.204869508553736 -0.425716102634158 -1.309782643940138 -0.007859119048479 0.742022160699834 0.583789149185886
-0.106240829790555 -0.423285546265067 -1.305876965155968 -0.031490058131637 0.794742010465035 0.552287469001917
-0.011135225981669 -0.419174867014702 -1.301673248702405 -0.088944870960808 0.819766092923732 0.506498786066872
0.054350478308541 -0.416275254317692 -1.297000050544739 -0.168778115262588 0.908540288607279 0.366869136691093
-0.766530986770286 -0.365096409929087 -1.359662006021212 0.716964728404461 0.435767315622818 -0.000381891884290
-0.712694782708435 -0.400056243290155 -1.363971141076857 0.235444115900062 0.628300943524151 0.420150020989117
-0.601012524948471 -0.403399011765029 -1.375148421094678 0.028787404973165 0.758847308706264 0.572322906528864
-0.499787349659941 -0.401321561363651 -1.373799995850709 -0.053671531356137 0.763136013685647 0.583870610468468
-0.400256246588754 -0.397883068035222 -1.367308913947104 -0.047429345356013 0.735404871493459 0.606624350785098
-0.300923113712350 -0.393954508070164 -1.361851888218442 -0.024656823760786 0.748819125286631 0.604615282674093
-0.201412693117645 -0.392590219060725 -1.358515896214169 -0.016022805906868 0.789935831091631 0.559493377938067
-0.101062206428463 -0.390442705664762 -1.354736045042533 -0.034555687516352 0.795577770542845 0.553017963591775
-0.001603359939680 -0.385070794506977 -1.348593123028683 -0.089563774662082 0.733467720900352 0.597607312847985
0.095065502907179 -0.388970955025412 -1.329594809658909 -0.065642806917491 0.695174246368632 0.618373463408101
0.198131319079552 -0.385637450321276 -1.325192323218473 -0.083017633389069 0.765605389551535 0.574263289646219
0.300420773462617 -0.370035314499857 -1.337130579073125 -0.045853546869199 0.729473294447049 0.600311896642141
0.398277498618965 -0.356728651313193 -1.342875007599119 -0.113172509939279 0.781490416113268 0.565256212162908
0.496636149018498 -0.349822610644748 -1.337306732807507 -0.096953047327198 0.749276081921861 0.590363269322226
0.597143300364848 -0.345379224328032 -1.332312981154629 -0.059489661927876 0.736181149401051 0.599743286261499
0.692093016915189 -0.341043056457048 -1.330649117470736 -0.096379953555992 0.739539082567569 0.590513204752095
0.752329399231769 -0.320700386859456 -1.353058800977819 0.042380853391746 0.754077900858486 0.620818785008262
-0.793949663882353 -0.306699593407767 -1.378428578376770 0.918907001614571 0.276708049433572 -0.240368259804589
0.511782798364565 -0.310592696803842 -1.388792181943918 -0.098536059295142 0.714777572975530 0.652762564165252
0.601886166213807 -0.307243641055360 -1.381920000485011 -0.119898433676800 0.757190196727003 0.580078032187053
0.699973041008502 -0.303053882185266 -1.379822352213298 -0.062974057967194 0.694284590210267 0.651441782712936
0.759381617878360 -0.296204244534088 -1.379114497708910 -0.211210664491461 0.698606037115323 0.592035599451029
-0.684268809911123 -0.475690677636194 -1.252029866726642 0.213452425993253 0.601741416352220 0.426836019137386
-0.602024152939848 -0.484396694397941 -1.253012970341164 -0.001861620487992 0.742833615958343 0.592085325798133
-0.501532929535407 -0.481178144436768 -1.251902960423936 -0.014017938533014 0.726531083047127 0.605394842864848
-0.401862507181949 -0.478612997449806 -1.250629191517090 -0.014477567090234 0.736843878833681 0.593939814517587
-0.301520733655717 -0.473125704836383 -1.249106629643729 -0.048315259685059 0.703967811810846 0.632351203126462
-0.201657463204293 -0.469023823534703 -1.245593819256579 -0.025538963347555 0.735850055869459 0.611066116179141
-0.101801251813668 -0.465000136670517 -1.243916759301461 -0.062624455115645 0.766728388835805 0.577461104363875
-0.002725553780147 -0.457345680125465 -1.243285338528951 -0.067985537552331 0.759941079253952 0.567227387968699
0.097279885926641 -0.448754389325836 -1.238978606348716 -0.056127671124752 0.776872144605880 0.561964835077438
0.197303394358510 -0.445175859728673 -1.236971951482302 -0.066611189315816 0.762004853393464 0.576623609981632
0.297246278330621 -0.441322672943277 -1.230857652071177 -0.084359686130030 0.756013045694267 0.580008336350786
0.396635228204760 -0.436585452257994 -1.223432504198004 -0.068065986320198 0.766074665512182 0.586780409385496
0.498348612347584 -0.434662241986822 -1.219656738868127 -0.037111167401991 0.737101147782344 0.594945014755313
0.595019945507445 -0.431453555605754 -1.216962333002696 -0.100933251832223 0.726295492612828 0.591553456926933
0.659362667619530 -0.424680346800216 -1.209453426532864 -0.171620329912833 0.698033473691585 0.531291644950831
-0.731216188780405 -0.397389924086081 -1.274554802946848 0.741966691448621 0.476986495395229 0.027205947669357
0.109742586411123 -0.413808751641488 -1.289714302335467 -0.031981699936073 0.813066725828210 0.553101849495148
0.207849515840310 -0.410651467333033 -1.287438103130885 -0.074413961908292 0.731999520318849 0.620251193713574
0.302459598921265 -0.406990241153294 -1.280494203976855 -0.111665806917351 0.762023288834399 0.572709935654620
0.400633569494558 -0.402441430858202 -1.272052638886268 -0.065980514221406 0.787342726879301 0.557045126105087
0.500632624858452 -0.399145486603875 -1.271219604130760 -0.052904945808612 0.757603551572301 0.590833000513288
0.598766121266710 -0.394311511280460 -1.266544596746253 -0.074445810026113 0.731754340620206 0.612853326949607
0.676407811188514 -0.389551621951394 -1.262807268670151 -0.135271018533577 0.748567126961893 0.577307094398407
-0.095180858441762 -0.236251622461137 -1.199600017070770 -0.687200754880905 -0.473876008391380 0.542567990720272
-0.169516191133377 -0.134021815617451 -1.205396231615318 -0.797995792244965 -0.184416223475534 0.513353839235486
-0.135133256940615 -0.188741829537210 -1.197416692972183 -0.763460511962573 -0.399390799303850 0.494590024153392
-0.190983757558216 -0.057338041771883 -1.203547181948176 -0.562025945317352 -0.127066966150624 0.563247236844925
-0.194325185568455 0.028180176550889 -1.207555558210538 -0.717277786154070 0.123446588976493 0.596297481729660
-0.165060453516499 0.126835791431274 -1.203789491402475 -0.710431257360860 0.287170432998162 0.515907833450719
-0.145701325967829 0.157481326230619 -1.197277804215749 -0.620200463467174 0.142116127018299 0.696602607766787
-0.094571514126299 0.220641936457792 -1.201205902239856 -0.576545230167754 0.702940137947307 0.387882731416646
-0.048384127942343 0.256991497168465 -1.200000023841858 -0.656871114174525 0.495712528626124 0.488265717029572
0.129960002899170 0.315780007044474 -1.197000026702881 -0.043566446751356 0.887401163578033 0.458855509757996
-0.679415248388152 -0.470602753288369 -1.183632243833234 0.784324505985264 0.187139710319799 0.150405584322289
-0.053400950545356 -0.493106649716695 -1.192999958992004 -0.270514123141766 0.677416563034058 0.683406680822372
0.012603061677714 -0.490109198207885 -1.191082618453286 -0.046834498243637 0.687760980414950 0.650309099515608
0.098455811030386 -0.484082979464229 -1.187875371009778 -0.042438795375742 0.629207105624278 0.675226687647093
0.200012833574629 -0.479164748022482 -1.185095453319231 -0.056752826965501 0.662559315971230 0.658200090924425
0.299200266878197 -0.474834178939453 -1.183982067637973 -0.069217727258120 0.692118983181681 0.663266184829897
0.398786852043984 -0.468732677447656 -1.181370467249460 -0.055148106618413 0.735332799390735 0.621982698977080
0.497237208746416 -0.466052812149844 -1.179278205542427 -0.040289298120139 0.700495769277098 0.647152519503760
0.600339219910404 -0.459691460868847 -1.172691981204466 -0.206907177952631 0.718364575030776 0.549844006747085
0.654042015477589 -0.440508911934353 -1.182359993457794 -0.017899225670844 0.822344964742661 0.483985563637689
0.093147220450236 -0.318117551881269 -1.176789503348501 0.003151907530417 -0.675690170965697 0.716704414079064
0.157895377606762 -0.317722184025512 -1.175857169287545 -0.136027837970427 -0.753115683794022 0.635101194892611
-0.071868845459631 -0.232962629395862 -1.162772083836932 -0.559173666321954 -0.601902065304823 0.542782718497653
-0.002176911747490 -0.255743303365371 -1.130378681245575 -0.378740274391714 -0.677787721359811 0.604483598788309
0.097028264580483 -0.283328815837482 -1.126485893359551 -0.088074260004681 -0.776150742173195 0.605619894350186
0.197087049327991 -0.275649523275516 -1.125516302073779 0.189551516293052 -0.735216661720820 0.626550767570734
0.282871573833662 -0.242049361399109 -1.129011676005352 0.357219847491743 -0.613656036903654 0.663766199280780
0.349839676221212 -0.216846662778703 -1.163666645685832 0.603340248266856 -0.532228767871857 0.592185159524282
-0.158359045993004 -0.133552915191367 -1.182374987751245 -0.768404681235552 -0.347265079850331 0.512483881786466
-0.103663095198162 -0.166847790551670 -1.133469047188863 -0.653021875447362 -0.435610362209230 0.590597239960352
-0.040752976093264 -0.205763392161046 -1.101187496135632 -0.497373421055575 -0.559159069011609 0.646623038376371
0.321056523762570 -0.191351856074610 -1.109799997447288 0.532594583948998 -0.498949189953608 0.665976181340544
0.369021967021778 -0.152680850429472 -1.127107401167294 0.611490557828211 -0.409743820426003 0.656823333663986
-0.169121990259245 -0.059373573884813 -1.161455457268456 -0.751262799538823 -0.126892296962468 0.586194668643870
-0.132866923926700 -0.071221647068779 -1.113379151439379 -0.728392811700297 -0.188555318543596 0.638691355634672
0.395707213750792 -0.068312636226936 -1.118452340605186 0.674386023102939 -0.162046575772678 0.689699024876793
-0.169020736196774 0.030051934871814 -1.159543645760370 -0.826426017497267 0.102968989300162 0.529952573102145
-0.134986910335345 0.037821364842824 -1.111466986929545 -0.731740450561526 0.138130329125318 0.643860116624986
0.399463138100414 0.034688497819872 -1.119457327609285 0.710328743365652 0.113467305386416 0.672881670332185
-0.161738940015985 0.104069853117506 -1.174804510030531 -0.762485076610307 0.285504730185056 0.554674496328024
-0.109276202664662 0.137995801832069 -1.129597389179727 -0.663074991625288 0.395879082245671 0.607872859887455
-0.046422199603959 0.177997304265722 -1.096482741421667 -0.486342359205772 0.518688701350113 0.695394758520455
0.329459509232420 0.162344267577009 -1.106800827247968 0.531839524685595 0.500592631855941 0.668402839003757
0.375184291869249 0.125865282663811 -1.129168718058112 0.616834568039814 0.348838067777219 0.676194167776141
-0.076226697920185 0.207795363605247 -1.157496157509592 -0.550774499087992 0.628189976334267 0.527119590040973
-0.005954214723819 0.237148307597112 -1.130712261402382 -0.385058349296519 0.661231437859670 0.610605379320540
0.095454673088110 0.261203167159449 -1.117974473012460 -0.097660948381333 0.760675714359627 0.620306802583528
0.201636297646790 0.255246142948150 -1.122932427155005 0.196688329213302 0.710058954821245 0.640870427138902
0.290965279533162 0.224253589231181 -1.136942046050226 0.390359968143951 0.607183846708217 0.643426589603489
0.356567070643648 0.193261721066607 -1.158904748303550 0.534184244417009 0.531594861830984 0.639688291719982
0.039508015849288 0.287562301948903 -1.166166668136914 -0.332154501850406 0.459534881015619 0.810798600316048
0.107166950084711 0.294241034260071 -1.163807010964343 -0.047021271737258 0.763406946862999 0.603715507346287
0.185164140129801 0.291891161381890 -1.166180709758437 0.113669357991199 0.575946779854326 0.733915427722127
0.024647301791550 -0.227905618015994 -1.080532480111886 -0.273150041586522 -0.628273259767722 0.711210922245339
0.100290303580035 -0.236426220807838 -1.071392948141026 -0.062615211109191 -0.639853091098800 0.747000938473781
0.189948571532205 -0.233683877328429 -1.076072399865096 0.167832492740136 -0.627102206953447 0.744550721512900
0.253918651703904 -0.220438851527403 -1.087736863838999 0.401706388122157 -0.598250577324315 0.691016595614584
-0.068561998544480 -0.140317287860060 -1.076897384304749 -0.548577221443779 -0.377621567014017 0.725776209486158
0.001172364140905 -0.161898883504231 -1.047128588926119 -0.349357252881911 -0.409382957946613 0.806791055420281
0.097973451018756 -0.164187330130344 -1.022280631327866 -0.077384452696836 -0.421469238670373 0.872065074001717
0.196602813933124 -0.164170749237765 -1.031161581859982 0.207923407751456 -0.423278889221706 0.856822233199003
0.286877180779460 -0.154910861254248 -1.062571113516471 0.428430913384181 -0.411325211151542 0.784034794319176
0.351700326740426 -0.119077886740367 -1.089333362049527 0.487817962964376 -0.389912979470359 0.774754259321425
-0.083280803219392 -0.062380055344945 -1.061871714466323 -0.576089227225905 -0.134001073000104 0.775764759697134
-0.005102182246617 -0.067970757222953 -1.014898953487999 -0.395761940981801 -0.174525082482454 0.867404834722218
0.089258305539594 -0.103793839478517 -0.997813889144981 -0.094824080108083 -0.277045006873970 0.915231005771317
0.210742322293070 -0.076163924291191 -1.002780084099088 0.231418620763391 -0.179228841836922 0.924105790586101
0.294907364146871 -0.064929432714175 -1.035777356826768 0.435582324558951 -0.149235288021090 0.860857981689052
0.360555168823491 -0.059644015624964 -1.079543873779756 0.600744396448135 -0.135664580099548 0.769414489804055
-0.084662148757614 0.031532451944762 -1.061370280528783 -0.586000253573895 0.112347205529749 0.777475516480604
-0.006017183831429 0.037108753077262 -1.013317815133753 -0.396062573679567 0.138881490581402 0.872893419899062
0.061647421649494 0.072836431408463 -0.997278095566653 -0.208237087284339 0.256363272447796 0.916262089249922
0.218690908803336 0.044551305737681 -1.001272298629025 0.259113922985981 0.130425461717712 0.924004659786761
0.295308519916315 0.033547800307641 -1.033462660029328 0.442615416830081 0.103185126400013 0.863282379296645
0.361628027798563 0.029396858886387 -1.077276700722106 0.607386193568930 0.104934866522301 0.765270479883763
-0.071515407562457 0.113902108445833 -1.074585853213758 -0.562532083123131 0.336903288043970 0.737166633542660
-0.000349137362476 0.131653328438142 -1.041493755997588 -0.369182562578872 0.391436044737666 0.812605722204255
0.097570962602705 0.133212003394863 -1.015492578339548 -0.080074718083386 0.403921286133950 0.882166328032014
0.196400225872626 0.132207350443087 -1.023074829918703 0.196998702890656 0.391306548840441 0.866894245379730
0.288961566516186 0.127002770927038 -1.058400770918813 0.437424028778828 0.379694992517480 0.792408399598699
0.352949846972767 0.093557852554671 -1.087435914919927 0.594484708248041 0.269199589124093 0.752698991543207
0.019241803986391 0.201456019301406 -1.075855299926989 -0.296705257118887 0.580471786901709 0.740685949701470
0.098974827239874 0.211760869403427 -1.065534744329796 -0.075326105359523 0.596460032719945 0.774927254245275
0.191498753801040 0.207743797353290 -1.069810875544867 0.188631763589316 0.589329550821136 0.766925458088602
0.261607822780436 0.193856891981328 -1.084114302907671 0.351814769988968 0.549221613293602 0.748410574595133
0.037551175423207 -0.036398617669185 -0.990258070730394 -0.240895732290923 -0.078431383373343 0.931440642283809
0.099504259473931 -0.056353706130397 -0.986127694554654 -0.055490209455196 -0.134549520754683 0.955807393623723
0.173770941352365 -0.047823002478018 -0.988258133574230 0.135005815651829 -0.108975626650357 0.960638497115635
0.036992279812234 0.009484366379364 -0.990398672332003 -0.277123358772071 0.060279529668830 0.919976226713174
0.099829751400242 0.029985417930557 -0.984884171837387 -0.071175018896393 0.105635747535117 0.957202115109111
0.176077901181597 0.023626575503956 -0.987474605765502 0.145529078019929 0.078753787472035 0.956280642306684
0.122059531151747 0.085380540154561 -0.991999983787537 -0.024291561441679 0.421793218446421 0.879526396592458
