ply
format ascii 1.0
element vertex 239
property float x
property float y
property float z
property float nx
property float ny
property float nz
end_header
-0.788053 -0.098359 -1.896800 0.203862 0.799816 0.454403
-0.713858 -0.097110 -1.896385 -0.055469 0.877692 0.439870
-0.608473 -0.098177 -1.895212 0.034327 0.699290 0.645502
-0.538093 -0.096772 -1.897333 -0.051776 0.905164 0.388526
-0.799516 -0.050385 -1.940085 0.586277 0.402732 0.254494
-0.708660 -0.067614 -1.947470 -0.003168 0.820892 0.502443
-0.610860 -0.069677 -1.945695 -0.001422 0.843998 0.488077
-0.529151 -0.069693 -1.950199 0.081607 0.821941 0.486050
0.733550 -0.034344 -1.916963 0.301656 0.780472 0.521606
0.790238 -0.020813 -1.935570 -0.139181 0.809626 0.481721
0.874369 -0.007324 -1.912955 -0.278601 0.694847 0.503114
0.980463 0.000879 -1.894513 -0.045680 0.903303 0.416758
1.051621 0.001002 -1.894000 0.032804 0.890189 0.446298
-0.817263 0.055038 -1.945993 0.973813 0.071409 0.120059
0.798074 0.008985 -1.984500 -0.148098 0.856109 0.423284
0.890571 0.023691 -1.957446 -0.210253 0.711983 0.500386
0.991906 0.029074 -1.950588 -0.073672 0.808893 0.495929
1.067605 0.035347 -1.952971 -0.037940 0.774414 0.529251
-0.826861 0.152505 -1.948304 0.911154 0.133640 0.139575
-0.811650 0.260158 -1.935790 0.925468 -0.026767 0.098896
-1.099588 0.359500 -1.948326 -0.150770 0.816678 0.538200
-1.009045 0.360777 -1.936462 -0.023048 0.811669 0.553984
-0.908582 0.365212 -1.941376 0.049599 0.822769 0.543265
-0.825721 0.343562 -1.953707 0.606589 0.424400 0.428892
-0.793520 -0.124580 -1.831685 0.358890 0.590532 0.382854
-0.708690 -0.126439 -1.840405 0.012596 0.786862 0.525245
-0.610637 -0.126866 -1.837505 -0.037104 0.863021 0.452278
-0.520591 -0.125549 -1.835173 -0.017125 0.777569 0.506819
0.725651 -0.102086 -1.804302 -0.357918 0.834319 0.358613
0.752359 -0.097921 -1.800800 -0.139363 0.924280 0.337001
-0.812841 -0.044454 -1.834796 0.971468 0.050591 0.089400
-0.498547 -0.091460 -1.883000 -0.416071 0.762146 0.495986
0.727523 -0.071494 -1.850143 0.022480 0.790512 0.526616
0.792378 -0.069860 -1.843257 -0.121243 0.800683 0.490361
0.883752 -0.042678 -1.840809 -0.259045 0.711204 0.471332
0.985062 -0.031725 -1.841705 -0.075348 0.783811 0.535847
1.047698 -0.009253 -1.878455 0.010934 0.759250 0.627163
-0.822179 0.052177 -1.840252 0.973115 0.091453 0.102575
-0.816365 0.150271 -1.851630 0.891077 0.096569 0.079469
-1.070548 0.298144 -1.855381 -0.018817 0.831528 0.527443
-1.011792 0.274771 -1.817323 -0.002068 0.464158 0.676364
-0.910868 0.280438 -1.817430 0.027249 0.732050 0.641005
-0.825394 0.259832 -1.841098 0.721918 0.404108 0.304726
-1.078046 0.317261 -1.880111 -0.008397 0.496672 0.782811
-1.008598 0.316119 -1.871112 -0.016316 0.802637 0.577194
-0.904109 0.318117 -1.867383 0.027307 0.758727 0.599638
-0.841110 0.315012 -1.876030 0.314635 0.648877 0.610082
-0.789012 -0.203289 -1.705724 0.124543 0.748327 0.518984
-0.713076 -0.201062 -1.703582 -0.030588 0.830148 0.510730
-0.610873 -0.201197 -1.701705 -0.001553 0.831258 0.512353
-0.509400 -0.200167 -1.702629 0.033981 0.869681 0.437770
-0.459538 -0.199729 -1.705000 -0.083740 0.821023 0.561089
-0.801400 -0.152531 -1.741326 0.615440 0.322321 0.235785
-0.708593 -0.174304 -1.750516 -0.003874 0.829377 0.508004
-0.608357 -0.173472 -1.748897 0.025405 0.784586 0.532602
-0.513095 -0.173656 -1.749601 -0.030573 0.802523 0.532811
-0.459538 -0.193233 -1.705000 -0.093686 0.762488 0.640184
0.717313 -0.134775 -1.733148 -0.222990 0.831686 0.401977
0.790064 -0.125509 -1.736763 -0.103845 0.807611 0.508416
0.878213 -0.112683 -1.718102 -0.313573 0.674547 0.492037
0.951049 -0.106145 -1.713327 -0.058177 0.761369 0.586784
-0.818826 -0.043912 -1.739857 0.967670 0.080316 0.107891
0.891710 -0.080760 -1.761419 -0.170689 0.802608 0.455524
0.964102 -0.079137 -1.759587 0.015366 0.841542 0.505251
-0.819716 0.039580 -1.745462 0.946622 0.076354 0.107799
-0.793477 0.161293 -1.733243 0.853425 0.203644 0.263628
-0.976721 0.246860 -1.777689 -0.171368 0.701991 0.668577
-0.898466 0.245968 -1.755992 0.057162 0.904197 0.372235
-0.826557 0.225788 -1.740576 0.549557 0.709183 0.289293
-0.793594 -0.229905 -1.633286 0.365021 0.543530 0.344149
-0.707906 -0.235464 -1.639921 0.026522 0.830936 0.496043
-0.609971 -0.235238 -1.640460 -0.009458 0.831370 0.502041
-0.510180 -0.233022 -1.639051 -0.002248 0.823276 0.509292
-0.448246 -0.235500 -1.624441 -0.410226 0.687118 0.532275
0.690806 -0.205023 -1.604628 -0.153403 0.774113 0.515871
0.791404 -0.202804 -1.600747 -0.012894 0.814894 0.546364
0.847051 -0.201096 -1.598969 -0.537629 0.602461 0.473510
-0.813185 -0.144604 -1.640025 0.962394 0.096213 0.109998
0.705487 -0.176807 -1.654667 -0.122197 0.781730 0.533040
0.792074 -0.174629 -1.650326 -0.061151 0.843714 0.484792
0.875731 -0.154295 -1.643834 -0.292283 0.715825 0.444171
0.941853 -0.125291 -1.686667 0.100772 0.754739 0.636403
-0.820251 -0.048582 -1.641162 0.973556 0.057605 0.076540
-0.788768 0.069500 -1.636986 0.920370 0.036792 0.134494
-0.891007 0.194367 -1.612975 0.204744 0.861651 0.419183
-0.815122 0.156586 -1.641605 0.690964 0.489109 0.331923
-0.901672 0.216190 -1.656909 0.159492 0.825085 0.461187
-0.843217 0.212091 -1.676636 0.398860 0.685237 0.510769
-0.787684 -0.303039 -1.508289 0.240928 0.738331 0.432977
-0.709434 -0.305216 -1.510887 0.013142 0.822409 0.496078
-0.607302 -0.305029 -1.510456 0.045890 0.826356 0.496263
-0.511709 -0.305521 -1.509647 -0.023070 0.800081 0.546368
-0.426762 -0.301731 -1.504993 -0.052884 0.856907 0.475440
-0.798939 -0.251496 -1.541195 0.657705 0.303197 0.237406
-0.710116 -0.277940 -1.557828 0.038749 0.809614 0.517067
-0.609029 -0.279292 -1.556986 0.001669 0.827185 0.479576
-0.509516 -0.277977 -1.556586 -0.020604 0.817431 0.505257
-0.434115 -0.276641 -1.552378 -0.066117 0.808249 0.536450
0.629166 -0.256375 -1.523125 -0.186108 0.771105 0.497043
0.691765 -0.240268 -1.540638 -0.100781 0.801296 0.513298
0.789033 -0.236874 -1.538516 -0.013291 0.835314 0.499394
0.852952 -0.219761 -1.553549 -0.520425 0.502135 0.437410
-0.815047 -0.145314 -1.539979 0.962386 0.086327 0.079577
0.865713 -0.188862 -1.577940 -0.265642 0.766982 0.354299
-0.812478 -0.054982 -1.541346 0.917782 0.053521 0.168910
-0.791684 0.060145 -1.535216 0.883989 0.268129 0.199850
-0.881385 0.160780 -1.548796 0.229192 0.808616 0.483336
-0.828771 0.131727 -1.547242 0.582303 0.636458 0.378146
-0.793035 -0.332033 -1.438794 0.320127 0.540975 0.430909
-0.710917 -0.340222 -1.442319 0.023314 0.840374 0.479536
-0.611162 -0.340632 -1.442595 0.017899 0.823419 0.500780
-0.509711 -0.338981 -1.442632 -0.016900 0.863247 0.466649
-0.414059 -0.337444 -1.441023 -0.032941 0.816107 0.511029
-0.351101 -0.349002 -1.407354 -0.248577 0.560480 0.728557
0.600074 -0.310750 -1.420492 -0.044771 0.833602 0.496658
0.689681 -0.308930 -1.416456 -0.044155 0.826348 0.515083
0.765420 -0.306188 -1.417588 -0.121256 0.830895 0.487853
-0.807300 -0.244051 -1.441295 0.920549 0.079207 0.184878
0.614585 -0.283142 -1.470787 -0.066482 0.739573 0.562143
0.690876 -0.280630 -1.465852 -0.059493 0.823350 0.509100
0.780778 -0.278069 -1.466266 -0.048516 0.820518 0.526960
-0.815886 -0.147533 -1.449077 0.922706 0.062056 0.184264
-0.785014 -0.031910 -1.433105 0.943319 0.091769 0.141494
-0.806989 0.052745 -1.447551 0.749807 0.450082 0.312244
-0.863528 0.118886 -1.486000 0.182881 0.815270 0.543935
-0.845487 0.112422 -1.481764 0.347544 0.767751 0.467967
-0.765682 -0.399103 -1.333000 -0.099741 0.874837 0.421561
-0.710189 -0.406844 -1.314535 0.015874 0.767197 0.552401
-0.607672 -0.405583 -1.315444 0.032647 0.862226 0.449888
-0.512140 -0.405781 -1.315955 0.005066 0.855946 0.467802
-0.412075 -0.404288 -1.314181 -0.019123 0.857948 0.466842
-0.322191 -0.402580 -1.309326 -0.071146 0.834549 0.499680
-0.777064 -0.377730 -1.372820 0.080039 0.793884 0.520001
-0.708188 -0.380198 -1.363745 0.002620 0.812701 0.492678
-0.610988 -0.381736 -1.365460 0.021977 0.848778 0.471079
-0.507663 -0.378860 -1.366851 0.015495 0.812144 0.513468
-0.408538 -0.378655 -1.362069 -0.006685 0.835020 0.501684
-0.334538 -0.380048 -1.354640 -0.085209 0.785239 0.542701
0.517629 -0.365671 -1.326061 -0.137856 0.796588 0.486566
0.590528 -0.354173 -1.342059 -0.034310 0.813984 0.521100
0.688546 -0.350358 -1.345016 -0.046301 0.807645 0.529712
0.755166 -0.331307 -1.374800 -0.099860 0.803439 0.538800
-0.780645 -0.099417 -1.349889 0.139106 0.155247 0.905810
-0.786194 -0.045059 -1.370515 0.872765 0.158440 0.260528
-0.803581 0.019212 -1.387873 0.725514 0.481388 0.442075
-0.691571 -0.443536 -1.248467 -0.094590 0.748363 0.577585
-0.609851 -0.441831 -1.242216 0.029749 0.798459 0.512462
-0.509216 -0.442129 -1.243267 -0.008051 0.844618 0.484319
-0.409537 -0.439621 -1.243800 -0.012120 0.824333 0.508951
-0.309738 -0.438318 -1.242986 -0.019240 0.798815 0.525091
-0.230946 -0.445866 -1.224448 -0.077829 0.770859 0.547772
0.413100 -0.427612 -1.216060 -0.027283 0.734901 0.543603
0.490806 -0.417901 -1.233627 -0.032421 0.807291 0.520521
0.589389 -0.417695 -1.231752 -0.049250 0.780615 0.540259
0.663082 -0.410614 -1.233953 -0.145147 0.842226 0.436474
0.500151 -0.389448 -1.283818 -0.026810 0.802077 0.530528
0.592855 -0.388250 -1.281700 -0.042089 0.820286 0.521754
0.676743 -0.386161 -1.278467 -0.075269 0.815984 0.518630
-0.671919 -0.485301 -1.181992 -0.006717 0.815454 0.508020
-0.605641 -0.478376 -1.175296 -0.045880 0.808554 0.496551
-0.510623 -0.476424 -1.174402 0.012826 0.774258 0.547126
-0.409451 -0.475350 -1.174876 0.012236 0.795848 0.514522
-0.309173 -0.474682 -1.175000 -0.005127 0.806633 0.529800
-0.208788 -0.471946 -1.176092 -0.002724 0.781105 0.549945
-0.144416 -0.475309 -1.166131 -0.160634 0.533911 0.715287
0.322075 -0.464899 -1.153682 0.182091 0.304341 0.716308
0.392414 -0.456101 -1.168007 -0.012209 0.774684 0.562394
0.489831 -0.454792 -1.168848 -0.018191 0.751016 0.576190
0.591789 -0.452322 -1.164209 -0.174647 0.802451 0.471639
0.650167 -0.434942 -1.181078 -0.105728 0.758344 0.533113
-0.227196 -0.000790 -1.007273 -0.840486 -0.187273 0.500448
-0.199528 0.039748 -0.999167 -0.656977 0.596416 0.439999
-0.151830 0.094787 -0.998500 -0.665728 0.632404 0.392599
0.069188 0.183885 -0.996765 -0.026837 0.891035 0.451612
-0.172250 -0.309431 -0.930846 -0.591692 -0.382135 0.681668
-0.122129 -0.342830 -0.909887 -0.515620 -0.486458 0.657147
0.229138 -0.364013 -0.898967 0.410046 -0.535207 0.728158
0.272959 -0.325591 -0.899960 0.404321 -0.414741 0.762617
-0.196660 -0.244538 -0.920036 -0.666366 -0.265146 0.639743
-0.156714 -0.290168 -0.898273 -0.696005 -0.369076 0.609863
0.321707 -0.255182 -0.904450 0.554566 -0.303250 0.736138
0.347076 -0.217652 -0.917040 0.518812 -0.150823 0.725697
-0.220837 -0.145830 -0.926256 -0.715204 -0.036493 0.631126
0.336580 -0.142790 -0.896048 0.703591 -0.008103 0.688783
0.352749 -0.142226 -0.915783 0.651187 0.017664 0.702899
-0.200622 -0.041610 -0.925448 -0.727093 0.290763 0.588291
-0.156918 0.000852 -0.895077 -0.690104 0.308127 0.648670
0.322223 -0.031043 -0.909807 0.664939 0.329943 0.651255
0.351289 -0.061801 -0.930675 0.675976 0.241410 0.653257
-0.178210 0.031470 -0.951815 -0.675982 0.493953 0.518780
-0.119868 0.069039 -0.923666 -0.524089 0.610713 0.569177
-0.047676 0.099753 -0.899692 -0.359572 0.736815 0.560542
0.213829 0.090019 -0.906741 0.393686 0.648906 0.629291
0.279307 0.050224 -0.924214 0.546767 0.496006 0.635189
-0.086681 0.119169 -0.957228 -0.434174 0.720786 0.515067
-0.008094 0.137106 -0.933847 -0.225073 0.775398 0.561146
0.089588 0.144832 -0.930677 0.051493 0.795855 0.578605
0.180483 0.128264 -0.936984 0.280529 0.711868 0.596887
0.245967 0.111922 -0.963522 0.505910 0.668930 0.526474
-0.092090 -0.320865 -0.867083 -0.446386 -0.501379 0.727788
-0.010938 -0.323204 -0.830903 -0.233130 -0.514129 0.809054
0.089997 -0.318949 -0.817451 0.058875 -0.487062 0.856436
0.188043 -0.324022 -0.845485 0.325821 -0.502555 0.784703
0.256563 -0.312249 -0.876753 0.522900 -0.483831 0.693248
-0.172067 -0.224092 -0.878672 -0.672107 -0.240232 0.687682
-0.106469 -0.241917 -0.835006 -0.472456 -0.281206 0.814026
-0.022827 -0.261790 -0.803298 -0.263032 -0.308484 0.891772
0.096747 -0.280405 -0.798354 0.074916 -0.363678 0.912138
0.195070 -0.248594 -0.811619 0.344067 -0.281501 0.876695
0.275868 -0.238422 -0.855361 0.564484 -0.262178 0.768136
-0.178306 -0.143274 -0.871332 -0.669895 0.001943 0.724886
-0.107592 -0.144273 -0.818385 -0.473904 0.003559 0.854782
-0.056345 -0.147397 -0.795015 -0.448169 0.020075 0.855268
0.215591 -0.143616 -0.803729 0.400579 0.013150 0.891894
0.282547 -0.144254 -0.845622 0.576190 0.014152 0.797078
-0.172496 -0.063108 -0.878493 -0.647679 0.235523 0.707936
-0.107177 -0.046245 -0.835666 -0.462175 0.276197 0.814815
-0.024597 -0.027974 -0.803287 -0.275145 0.314592 0.873539
0.099017 -0.008103 -0.797727 0.080257 0.373860 0.877328
0.194867 -0.040380 -0.812723 0.352678 0.280754 0.863725
0.275184 -0.050432 -0.856821 0.551980 0.270398 0.768711
-0.092059 0.033767 -0.867521 -0.431478 0.484888 0.738202
-0.007764 0.051288 -0.841839 -0.226294 0.535363 0.788028
0.089633 0.052163 -0.832374 0.063053 0.540837 0.809960
0.183765 0.046151 -0.852834 0.329467 0.526869 0.762705
0.255872 0.023005 -0.877499 0.529280 0.448167 0.709724
0.016633 0.111182 -0.885843 -0.134106 0.697857 0.683657
0.084152 0.112381 -0.883584 0.039355 0.707319 0.682547
0.146043 0.107627 -0.889182 0.173498 0.655745 0.723475
0.005052 -0.224750 -0.783507 -0.203275 -0.219877 0.877068
0.087387 -0.231016 -0.781028 -0.021668 -0.223459 0.869098
0.156525 -0.215674 -0.787424 0.207486 -0.195833 0.903232
-0.061399 -0.138487 -0.792000 -0.397716 0.023947 0.886236
-0.008209 -0.144278 -0.777565 -0.277807 -0.004555 0.829759
0.089902 -0.144430 -0.769905 -0.186932 -0.005311 0.707640
0.166021 -0.145150 -0.783816 0.214531 0.008022 0.882979
0.005753 -0.062474 -0.783161 -0.228700 0.228295 0.879623
0.086941 -0.056348 -0.780308 0.020099 0.251219 0.870056
0.156081 -0.073770 -0.787736 0.268414 0.201824 0.916654
